ply
format ascii 1.0
element vertex 2186
property float x
property float y
property float z
property uchar red
property uchar green
property uchar blue
end_header
28 30 216 247 206 188
28 31 216 247 206 188
28 32 215 247 204 187
28 33 214 246 203 186
28 34 212 244 201 184
28 35 211 243 200 181
28 36 210 244 199 180
28 37 208 242 197 176
28 38 206 241 194 174
28 39 203 238 192 169
28 40 202 240 190 167
28 41 202 241 189 165
28 42 201 243 187 162
28 43 197 240 183 156
28 44 191 237 176 148
28 45 186 234 170 142
28 46 183 231 167 139
28 47 182 231 166 138
28 48 182 231 166 138
28 49 182 231 166 136
28 50 182 231 166 136
28 51 182 232 165 136
28 52 181 231 164 135
28 53 180 232 163 132
28 54 180 232 163 134
28 55 181 233 164 135
28 56 181 233 164 135
28 57 182 232 165 138
28 58 184 233 168 140
28 59 185 233 169 142
28 60 187 233 171 146
28 61 192 237 177 151
28 62 197 242 182 158
28 63 201 244 186 162
28 64 206 247 193 169
28 65 208 247 195 171
28 66 209 247 197 174
28 67 211 247 199 176
28 68 211 246 200 177
28 69 212 244 202 180
28 70 213 245 202 183
28 71 213 244 203 183
28 72 214 243 205 186
28 73 214 242 205 186
28 74 214 243 205 186
28 75 213 242 204 185
28 76 212 243 202 184
28 77 213 244 203 185
28 78 213 244 203 183
29 0 220 247 212 192
29 1 220 247 212 192
29 2 220 247 212 192
29 3 218 245 210 190
29 4 216 244 207 188
29 5 215 243 206 187
29 6 214 242 205 186
29 7 214 242 205 186
29 8 215 243 206 187
29 9 217 245 208 189
29 10 219 246 211 191
29 11 219 246 211 191
29 12 220 247 212 192
29 13 221 248 213 193
29 14 221 246 214 193
29 15 221 246 214 193
29 16 221 248 213 193
29 17 220 247 212 192
29 18 219 244 212 191
29 19 218 243 211 190
29 20 218 243 210 191
29 21 217 242 209 190
29 22 217 241 210 190
29 23 216 240 209 189
29 24 215 240 207 188
29 25 214 239 206 187
29 26 214 241 206 187
29 27 215 242 207 187
29 28 216 245 207 188
29 29 216 245 207 188
29 30 215 246 205 187
29 31 215 246 205 185
29 32 215 247 204 185
29 33 213 245 203 181
29 34 212 244 201 182
29 35 210 242 200 178
29 36 209 243 198 177
29 37 207 241 196 173
29 38 203 238 192 169
29 39 201 237 189 166
29 40 199 238 186 162
29 41 199 240 186 160
29 42 197 240 183 156
29 43 194 239 179 151
29 44 188 236 172 144
29 45 183 232 167 137
29 46 180 229 164 134
29 47 179 228 163 131
29 48 179 228 163 133
29 49 179 228 163 131
29 50 179 229 162 133
29 51 180 232 163 132
29 52 179 231 162 131
29 53 179 232 161 131
29 54 179 232 161 131
29 55 180 233 162 132
29 56 180 233 162 134
29 57 182 234 165 136
29 58 183 233 166 139
29 59 184 233 168 140
29 60 186 234 170 143
29 61 190 236 174 149
29 62 196 242 180 157
29 63 201 244 186 162
29 64 206 248 192 169
29 65 207 248 194 170
29 66 209 248 196 174
29 67 211 247 199 176
29 68 212 247 201 178
29 69 212 244 202 178
29 70 213 245 202 183
29 71 214 243 205 184
29 72 214 243 205 186
29 73 215 243 206 187
29 74 214 243 205 186
29 75 213 242 204 185
29 76 212 243 202 184
29 77 212 243 202 184
29 78 213 244 203 183
30 0 220 247 212 192
30 1 219 246 211 191
30 2 218 245 210 190
30 3 217 244 209 189
30 4 216 243 208 188
30 5 215 242 207 187
30 6 215 243 206 187
30 7 215 243 206 187
30 8 217 244 209 189
30 9 219 246 211 191
30 10 220 247 212 192
30 11 219 246 211 191
30 12 219 244 212 191
30 13 220 245 213 192
30 14 221 246 214 193
30 15 220 245 213 192
30 16 220 245 213 192
30 17 219 244 212 191
30 18 219 244 212 191
30 19 218 243 211 190
30 20 217 241 210 190
30 21 217 241 210 190
30 22 216 240 209 189
30 23 216 240 209 189
30 24 215 240 207 188
30 25 214 239 206 187
30 26 214 241 206 186
30 27 215 242 207 187
30 28 216 245 207 188
30 29 215 244 206 185
30 30 214 245 204 184
30 31 214 245 204 184
30 32 213 245 203 181
30 33 211 243 201 177
30 34 209 243 198 177
30 35 208 242 197 174
30 36 207 241 196 173
30 37 204 238 194 169
30 38 200 235 189 165
30 39 198 234 187 161
30 40 196 235 183 159
30 41 195 236 182 156
30 42 194 237 180 151
30 43 191 236 177 147
30 44 185 233 170 139
30 45 180 229 164 132
30 46 177 227 161 129
30 47 177 227 161 127
30 48 176 226 160 128
30 49 176 226 160 126
30 50 176 228 159 128
30 51 178 230 161 128
30 52 178 231 160 128
30 53 177 232 159 127
30 54 178 233 160 128
30 55 179 234 161 129
30 56 181 236 162 133
30 57 182 235 164 134
30 58 183 235 166 137
30 59 184 234 167 140
30 60 186 234 170 143
30 61 190 236 175 147
30 62 196 242 180 155
30 63 201 246 186 160
30 64 204 247 189 165
30 65 206 247 193 169
30 66 208 247 195 173
30 67 210 248 198 175
30 68 211 246 200 177
30 69 212 244 202 178
30 70 213 245 202 183
30 71 214 243 205 184
30 72 214 243 205 186
30 73 214 242 205 186
30 74 214 242 205 186
30 75 213 241 204 185
30 76 212 241 203 184
30 77 212 241 203 184
30 78 213 244 203 185
31 0 219 246 211 191
31 1 218 245 210 190
31 2 217 244 209 189
31 3 216 243 208 188
31 4 215 242 207 187
31 5 215 242 207 187
31 6 215 243 206 187
31 7 216 244 207 188
31 8 218 245 210 190
31 9 220 247 212 192
31 10 221 248 213 193
31 11 219 246 211 191
31 12 219 244 212 191
31 13 220 245 213 192
31 14 221 246 214 193
31 15 219 244 212 191
31 16 219 244 212 191
31 17 219 244 212 191
31 18 218 243 211 190
31 19 218 243 211 190
31 20 218 243 210 191
31 21 217 241 210 190
31 22 216 241 208 189
31 23 215 240 207 188
31 24 216 241 208 189
31 25 214 239 207 186
31 26 214 241 206 186
31 27 215 242 207 187
31 28 216 245 207 186
31 29 215 244 206 185
31 30 214 245 204 184
31 31 213 245 203 181
31 32 211 243 201 177
31 33 210 244 199 176
31 34 208 242 197 174
31 35 207 242 196 173
31 36 205 240 194 170
31 37 203 238 192 168
31 38 199 235 188 162
31 39 196 234 184 159
31 40 194 235 181 155
31 41 193 235 179 152
31 42 191 236 176 148
31 43 188 234 173 142
31 44 183 232 167 137
31 45 177 227 161 129
31 46 174 226 157 124
31 47 174 226 157 124
31 48 174 226 157 124
31 49 173 225 156 123
31 50 174 226 157 124
31 51 176 229 158 126
31 52 176 229 158 126
31 53 176 231 158 126
31 54 176 231 158 126
31 55 178 233 160 128
31 56 179 234 160 131
31 57 181 234 163 133
31 58 182 234 165 136
31 59 183 233 166 137
31 60 184 233 167 141
31 61 189 237 173 146
31 62 194 242 178 153
31 63 199 244 184 158
31 64 203 246 188 164
31 65 205 246 192 166
31 66 208 249 194 173
31 67 210 248 198 175
31 68 211 246 200 177
31 69 212 244 202 180
31 70 214 245 204 184
31 71 215 244 206 185
31 72 214 242 205 186
31 73 215 243 206 187
31 74 214 242 205 186
31 75 213 241 204 185
31 76 213 242 204 185
31 77 213 242 204 185
31 78 214 245 204 186
32 0 218 245 210 190
32 1 218 245 210 190
32 2 217 244 209 189
32 3 216 243 208 188
32 4 215 242 207 187
32 5 215 242 207 187
32 6 216 243 208 188
32 7 217 244 209 189
32 8 220 247 212 192
32 9 220 247 212 192
32 10 220 247 212 192
32 11 218 245 210 190
32 12 218 245 210 190
32 13 219 246 211 191
32 14 220 247 212 192
32 15 220 247 212 192
32 16 219 244 212 189
32 17 218 243 211 188
32 18 218 245 210 190
32 19 217 244 209 189
32 20 216 243 208 188
32 21 216 241 209 188
32 22 216 243 208 188
32 23 217 244 209 189
32 24 216 243 208 188
32 25 215 242 207 187
32 26 215 242 207 187
32 27 215 242 207 185
32 28 215 244 206 185
32 29 214 243 205 184
32 30 213 244 203 181
32 31 211 243 201 179
32 32 209 243 198 175
32 33 207 242 196 173
32 34 206 242 194 172
32 35 205 241 193 171
32 36 204 242 192 169
32 37 202 240 190 167
32 38 197 236 184 160
32 39 194 235 181 157
32 40 190 232 176 151
32 41 190 233 176 149
32 42 188 233 173 145
32 43 185 231 170 139
32 44 181 230 165 135
32 45 176 226 160 128
32 46 173 225 156 123
32 47 173 226 155 123
32 48 174 227 156 126
32 49 174 227 156 126
32 50 175 228 157 127
32 51 175 228 157 127
32 52 175 228 157 125
32 53 175 228 157 125
32 54 176 229 158 126
32 55 177 230 159 127
32 56 178 231 160 130
32 57 178 231 160 130
32 58 179 231 162 133
32 59 181 231 164 135
32 60 183 232 166 140
32 61 187 235 171 144
32 62 193 241 177 152
32 63 198 244 182 157
32 64 202 245 187 163
32 65 204 245 191 165
32 66 207 248 193 172
32 67 209 247 197 174
32 68 210 245 199 176
32 69 212 244 202 180
32 70 215 246 205 185
32 71 216 245 207 188
32 72 214 242 205 187
32 73 214 242 205 187
32 74 213 241 204 185
32 75 213 241 204 185
32 76 213 242 204 185
32 77 214 243 205 186
32 78 214 245 204 184
33 0 218 245 210 190
33 1 217 244 209 189
33 2 217 244 209 189
33 3 217 244 209 189
33 4 216 243 208 188
33 5 217 244 209 189
33 6 217 244 209 189
33 7 218 245 210 190
33 8 219 246 211 191
33 9 219 246 211 191
33 10 219 246 211 191
33 11 218 245 210 190
33 12 218 245 210 190
33 13 219 246 211 191
33 14 220 247 212 192
33 15 219 246 211 191
33 16 219 244 212 189
33 17 218 243 211 188
33 18 217 244 209 189
33 19 216 243 208 188
33 20 216 243 208 188
33 21 216 243 208 188
33 22 216 243 208 188
33 23 216 243 208 188
33 24 216 243 208 188
33 25 215 242 207 187
33 26 215 242 207 185
33 27 215 243 207 185
33 28 215 244 206 185
33 29 214 245 204 184
33 30 212 244 202 180
33 31 210 242 200 178
33 32 207 242 196 173
33 33 206 241 195 172
33 34 204 242 191 170
33 35 202 240 190 167
33 36 201 240 188 166
33 37 198 239 185 161
33 38 193 234 180 156
33 39 189 231 175 150
33 40 186 229 172 145
33 41 184 229 169 141
33 42 183 229 168 139
33 43 183 231 168 137
33 44 179 229 163 131
33 45 174 226 157 126
33 46 172 225 154 122
33 47 173 226 155 123
33 48 174 229 155 128
33 49 176 231 157 130
33 50 176 229 158 128
33 51 175 228 157 127
33 52 174 227 156 124
33 53 174 227 156 124
33 54 174 227 156 124
33 55 172 225 154 122
33 56 175 228 157 127
33 57 176 229 158 128
33 58 177 229 160 131
33 59 180 230 163 134
33 60 183 233 166 140
33 61 187 236 170 144
33 62 193 241 177 152
33 63 198 244 182 157
33 64 201 244 186 162
33 65 203 244 190 164
33 66 206 247 192 171
33 67 208 246 196 173
33 68 210 245 198 178
33 69 213 245 203 181
33 70 215 246 205 185
33 71 216 245 207 188
33 72 216 244 207 189
33 73 214 242 205 187
33 74 212 240 203 184
33 75 214 242 205 186
33 76 214 243 205 186
33 77 214 243 205 186
33 78 214 245 204 184
34 0 216 243 208 188
34 1 216 243 208 188
34 2 216 243 208 188
34 3 217 244 209 189
34 4 217 244 209 189
34 5 218 245 210 190
34 6 218 245 210 190
34 7 218 245 210 190
34 8 218 245 210 190
34 9 218 245 210 190
34 10 218 245 210 190
34 11 217 244 209 189
34 12 218 245 210 190
34 13 219 246 211 191
34 14 219 246 211 191
34 15 219 246 211 191
34 16 218 243 211 188
34 17 218 243 211 188
34 18 217 244 209 189
34 19 216 243 208 188
34 20 215 242 207 187
34 21 215 242 207 187
34 22 216 243 208 188
34 23 216 243 208 188
34 24 216 243 208 188
34 25 216 243 208 188
34 26 216 244 208 186
34 27 216 244 208 186
34 28 215 244 206 185
34 29 214 245 204 184
34 30 211 243 201 179
34 31 209 241 199 177
34 32 206 241 195 172
34 33 204 239 193 170
34 34 201 239 189 166
34 35 200 238 188 165
34 36 197 236 184 162
34 37 194 235 181 157
34 38 189 231 175 150
34 39 185 228 171 144
34 40 182 227 167 139
34 41 178 224 163 134
34 42 177 225 161 133
34 43 178 227 162 132
34 44 176 226 160 128
34 45 170 222 153 122
34 46 169 222 151 119
34 47 173 228 155 123
34 48 176 231 157 130
34 49 178 233 159 132
34 50 178 231 160 130
34 51 175 228 157 127
34 52 174 227 156 126
34 53 175 228 157 127
34 54 174 227 156 124
34 55 171 224 153 121
34 56 172 225 154 124
34 57 172 225 154 124
34 58 174 226 157 128
34 59 178 228 161 132
34 60 181 231 164 138
34 61 185 234 168 142
34 62 191 239 175 150
34 63 196 241 181 155
34 64 200 243 185 161
34 65 202 243 189 163
34 66 205 246 191 170
34 67 207 245 195 172
34 68 210 245 198 178
34 69 214 246 204 182
34 70 216 247 206 186
34 71 217 246 208 187
34 72 217 245 208 189
34 73 213 241 204 185
34 74 212 240 203 184
34 75 214 242 205 186
34 76 215 244 206 187
34 77 214 243 205 186
34 78 214 243 205 184
35 0 216 243 208 188
35 1 216 243 208 188
35 2 216 243 208 188
35 3 218 245 210 190
35 4 219 246 211 191
35 5 219 246 211 191
35 6 219 246 211 191
35 7 219 246 211 191
35 8 218 245 210 190
35 9 218 245 210 190
35 10 217 244 209 189
35 11 217 244 209 189
35 12 217 244 209 189
35 13 218 245 210 190
35 14 219 246 211 191
35 15 219 246 211 191
35 16 218 243 211 188
35 17 217 242 210 187
35 18 216 243 208 188
35 19 216 243 208 188
35 20 216 243 208 188
35 21 216 243 208 188
35 22 217 244 209 189
35 23 217 244 209 189
35 24 217 244 209 189
35 25 217 244 209 189
35 26 216 244 208 186
35 27 215 243 207 185
35 28 214 245 204 184
35 29 212 243 202 182
35 30 210 242 200 178
35 31 208 242 197 176
35 32 205 240 194 171
35 33 202 238 190 167
35 34 199 237 187 164
35 35 197 236 184 160
35 36 194 235 181 157
35 37 190 232 176 151
35 38 185 228 171 144
35 39 181 226 166 138
35 40 179 225 164 135
35 41 176 224 161 130
35 42 174 223 158 128
35 43 174 224 157 128
35 44 172 224 155 124
35 45 169 222 151 121
35 46 169 224 151 119
35 47 172 227 153 124
35 48 175 230 156 127
35 49 176 231 157 130
35 50 176 229 158 128
35 51 175 228 157 127
35 52 174 227 156 126
35 53 174 227 156 126
35 54 173 226 155 123
35 55 172 225 154 122
35 56 171 224 153 123
35 57 172 225 154 124
35 58 174 226 157 128
35 59 178 228 161 132
35 60 181 231 164 137
35 61 185 233 169 142
35 62 190 238 174 149
35 63 195 240 180 154
35 64 200 243 185 161
35 65 202 243 189 163
35 66 204 245 191 167
35 67 207 245 195 172
35 68 210 245 199 176
35 69 214 246 204 182
35 70 216 247 206 186
35 71 217 246 208 187
35 72 215 243 206 187
35 73 214 242 205 186
35 74 213 241 204 185
35 75 214 242 205 186
35 76 214 243 205 186
35 77 214 243 205 186
35 78 214 243 205 184
36 0 217 244 209 189
36 1 217 244 209 189
36 2 218 245 210 190
36 3 219 246 211 191
36 4 220 247 212 192
36 5 221 248 213 193
36 6 222 249 214 194
36 7 221 248 213 193
36 8 220 247 212 192
36 9 219 246 211 191
36 10 217 244 209 189
36 11 217 244 209 189
36 12 217 244 209 189
36 13 218 245 210 190
36 14 218 245 210 190
36 15 219 246 211 191
36 16 218 245 210 190
36 17 217 244 209 189
36 18 216 243 208 188
36 19 217 244 209 189
36 20 217 245 208 189
36 21 218 246 209 190
36 22 218 245 210 190
36 23 218 245 210 190
36 24 217 244 209 189
36 25 217 244 209 189
36 26 216 244 208 186
36 27 214 242 206 184
36 28 212 243 202 182
36 29 210 241 200 180
36 30 208 240 198 176
36 31 206 240 195 174
36 32 203 238 192 169
36 33 200 236 188 165
36 34 197 235 185 162
36 35 194 233 181 157
36 36 191 233 177 150
36 37 187 230 173 144
36 38 182 228 167 138
36 39 178 226 163 132
36 40 176 225 160 130
36 41 175 225 159 127
36 42 174 224 158 126
36 43 171 223 154 123
36 44 169 222 151 121
36 45 170 225 151 122
36 46 171 226 152 123
36 47 173 229 154 125
36 48 174 229 155 126
36 49 172 227 153 124
36 50 171 224 153 123
36 51 172 225 154 124
36 52 172 225 154 122
36 53 171 224 153 121
36 54 171 224 153 121
36 55 173 226 155 123
36 56 174 227 156 126
36 57 174 227 156 126
36 58 176 228 159 130
36 59 179 229 162 133
36 60 182 232 165 138
36 61 185 233 169 141
36 62 190 238 174 147
36 63 195 240 180 154
36 64 199 242 184 160
36 65 201 242 188 162
36 66 204 245 191 167
36 67 206 244 194 171
36 68 210 246 198 176
36 69 213 247 202 181
36 70 214 246 203 184
36 71 214 243 205 184
36 72 214 242 205 186
36 73 216 244 207 188
36 74 217 244 209 189
36 75 216 243 208 188
36 76 215 243 206 187
36 77 215 243 206 187
36 78 215 243 207 185
37 0 217 244 209 189
37 1 217 244 209 189
37 2 218 245 210 190
37 3 220 247 212 192
37 4 221 248 213 193
37 5 222 249 214 194
37 6 222 249 214 194
37 7 222 249 214 194
37 8 221 248 213 193
37 9 219 246 211 191
37 10 218 245 210 190
37 11 218 245 210 190
37 12 218 245 210 190
37 13 218 245 210 190
37 14 218 245 210 190
37 15 218 245 210 190
37 16 217 244 209 189
37 17 217 244 209 189
37 18 217 244 209 189
37 19 217 244 209 189
37 20 219 247 210 191
37 21 220 248 211 192
37 22 220 247 212 192
37 23 219 246 211 191
37 24 218 245 210 190
37 25 217 244 209 189
37 26 216 244 208 186
37 27 214 243 205 184
37 28 212 243 202 182
37 29 209 241 198 179
37 30 207 241 196 175
37 31 206 240 195 172
37 32 202 237 191 167
37 33 199 235 188 162
37 34 195 234 182 158
37 35 192 233 179 153
37 36 188 231 174 145
37 37 184 229 170 140
37 38 180 228 165 134
37 39 176 225 160 128
37 40 173 223 157 125
37 41 174 226 157 124
37 42 173 226 155 125
37 43 170 223 152 122
37 44 169 224 150 121
37 45 171 226 152 123
37 46 173 229 154 125
37 47 174 230 155 126
37 48 174 230 155 126
37 49 171 226 152 123
37 50 169 224 150 121
37 51 171 224 153 123
37 52 171 224 153 121
37 53 170 223 152 120
37 54 171 224 153 121
37 55 174 227 156 124
37 56 176 229 158 128
37 57 176 229 158 128
37 58 178 230 161 132
37 59 180 230 163 134
37 60 182 231 166 138
37 61 185 233 169 141
37 62 190 236 175 147
37 63 194 239 179 151
37 64 200 243 185 161
37 65 202 243 189 163
37 66 205 246 192 168
37 67 208 246 196 171
37 68 210 246 198 176
37 69 212 246 201 178
37 70 213 245 202 183
37 71 213 242 204 183
37 72 212 241 203 184
37 73 216 244 207 188
37 74 218 245 210 190
37 75 216 243 208 188
37 76 215 243 206 187
37 77 216 244 207 188
37 78 216 244 208 186
38 0 215 242 207 187
38 1 216 243 208 188
38 2 218 245 210 190
38 3 220 247 212 192
38 4 221 248 213 193
38 5 221 248 213 193
38 6 221 248 213 193
38 7 221 248 213 193
38 8 221 248 213 193
38 9 219 246 211 191
38 10 218 245 210 190
38 11 219 246 211 191
38 12 219 246 211 191
38 13 218 245 210 190
38 14 217 244 209 189
38 15 217 244 209 189
38 16 216 243 208 188
38 17 216 243 208 188
38 18 217 245 208 189
38 19 218 246 209 190
38 20 219 247 210 191
38 21 220 248 211 192
38 22 219 247 210 191
38 23 218 246 209 190
38 24 218 246 209 190
38 25 217 245 208 189
38 26 216 245 207 186
38 27 214 243 205 184
38 28 212 243 202 180
38 29 209 241 199 177
38 30 206 240 195 174
38 31 205 240 194 171
38 32 201 237 189 166
38 33 198 234 187 161
38 34 193 232 181 154
38 35 189 231 175 148
38 36 186 231 172 142
38 37 182 228 167 136
38 38 177 226 161 129
38 39 173 225 156 123
38 40 171 224 153 121
38 41 171 224 154 120
38 42 171 226 153 121
38 43 170 225 152 120
38 44 170 226 151 122
38 45 171 227 152 123
38 46 173 230 153 127
38 47 175 231 155 129
38 48 175 231 156 127
38 49 172 227 153 124
38 50 170 225 151 122
38 51 171 226 152 123
38 52 171 224 153 121
38 53 171 224 153 121
38 54 173 226 155 125
38 55 175 228 157 127
38 56 176 229 158 128
38 57 176 229 158 128
38 58 177 229 160 131
38 59 180 230 163 134
38 60 182 231 166 138
38 61 185 233 169 141
38 62 190 236 175 147
38 63 194 239 179 151
38 64 200 243 185 161
38 65 203 244 190 164
38 66 207 248 194 170
38 67 209 247 197 172
38 68 211 247 199 177
38 69 212 246 201 178
38 70 213 245 202 183
38 71 213 242 204 183
38 72 213 242 204 185
38 73 215 243 206 187
38 74 216 243 208 188
38 75 216 243 208 188
38 76 215 242 207 187
38 77 216 243 208 188
38 78 216 244 207 188
39 0 215 242 207 187
39 1 217 244 209 189
39 2 219 246 211 191
39 3 221 248 213 193
39 4 221 248 213 193
39 5 221 248 213 193
39 6 221 248 213 193
39 7 220 247 212 192
39 8 220 247 212 192
39 9 218 245 210 190
39 10 218 245 210 190
39 11 220 247 212 192
39 12 220 247 212 192
39 13 219 246 211 191
39 14 217 244 209 189
39 15 217 244 209 189
39 16 216 243 208 188
39 17 216 243 208 188
39 18 216 244 207 188
39 19 218 246 209 190
39 20 219 247 210 191
39 21 220 248 211 192
39 22 219 247 210 191
39 23 217 245 208 189
39 24 216 244 207 188
39 25 216 244 207 188
39 26 215 244 206 185
39 27 213 244 203 183
39 28 210 242 200 178
39 29 207 241 196 175
39 30 204 239 192 172
39 31 203 239 191 169
39 32 200 236 188 165
39 33 196 234 184 157
39 34 192 233 179 151
39 35 187 230 173 144
39 36 183 229 168 139
39 37 179 228 163 131
39 38 174 226 157 124
39 39 171 224 154 120
39 40 170 225 152 119
39 41 169 224 151 118
39 42 169 225 150 118
39 43 171 227 152 120
39 44 170 226 151 120
39 45 170 226 151 122
39 46 171 228 151 125
39 47 174 231 154 128
39 48 173 229 154 125
39 49 172 228 153 124
39 50 170 225 151 122
39 51 169 224 150 121
39 52 170 225 152 120
39 53 172 225 154 122
39 54 173 226 155 125
39 55 174 227 156 126
39 56 176 229 158 128
39 57 176 229 158 128
39 58 177 229 160 131
39 59 180 230 163 134
39 60 182 231 166 138
39 61 185 231 170 141
39 62 190 236 175 147
39 63 195 238 181 154
39 64 200 242 186 161
39 65 203 244 190 164
39 66 207 246 194 170
39 67 210 248 198 173
39 68 211 247 199 177
39 69 212 246 201 178
39 70 212 244 201 182
39 71 212 241 203 182
39 72 214 243 205 186
39 73 214 242 205 186
39 74 214 241 206 186
39 75 216 243 208 188
39 76 217 244 209 189
39 77 218 245 210 190
39 78 217 245 208 189
40 0 216 243 208 188
40 1 217 244 209 189
40 2 220 247 212 192
40 3 223 250 215 195
40 4 223 250 215 195
40 5 220 247 212 192
40 6 219 246 211 191
40 7 219 246 211 191
40 8 219 246 211 191
40 9 219 246 211 191
40 10 219 247 210 191
40 11 219 247 210 191
40 12 218 246 209 190
40 13 216 244 207 188
40 14 215 243 206 187
40 15 215 243 206 187
40 16 214 241 206 186
40 17 216 243 208 188
40 18 218 246 209 190
40 19 217 245 208 189
40 20 218 247 209 190
40 21 219 248 210 191
40 22 218 247 209 190
40 23 217 246 208 189
40 24 216 245 207 188
40 25 215 244 206 187
40 26 213 244 203 183
40 27 210 241 200 180
40 28 208 242 197 176
40 29 205 240 193 173
40 30 203 238 192 169
40 31 201 237 189 166
40 32 197 235 185 160
40 33 193 232 181 154
40 34 189 231 175 148
40 35 186 231 172 142
40 36 183 231 168 137
40 37 178 228 162 130
40 38 173 226 155 123
40 39 171 226 153 120
40 40 169 224 151 118
40 41 169 225 151 116
40 42 169 226 150 118
40 43 169 226 150 118
40 44 169 226 149 119
40 45 169 226 149 121
40 46 171 230 150 125
40 47 173 230 153 127
40 48 173 229 154 125
40 49 171 227 152 121
40 50 169 225 150 119
40 51 169 224 151 119
40 52 170 225 152 120
40 53 172 227 154 122
40 54 174 227 156 126
40 55 176 229 158 128
40 56 177 230 159 131
40 57 178 231 160 132
40 58 179 231 161 135
40 59 179 229 162 135
40 60 180 229 163 137
40 61 184 230 169 141
40 62 191 237 176 148
40 63 195 238 181 154
40 64 201 243 187 162
40 65 205 246 192 168
40 66 207 246 194 170
40 67 210 248 198 173
40 68 210 246 198 176
40 69 208 242 197 174
40 70 209 241 198 179
40 71 212 241 203 182
40 72 213 242 204 185
40 73 214 242 205 186
40 74 216 243 208 188
40 75 217 244 209 189
40 76 217 244 209 189
40 77 217 244 209 189
40 78 217 244 209 189
41 0 217 244 209 189
41 1 218 245 210 190
41 2 221 248 213 193
41 3 224 251 216 196
41 4 224 251 216 196
41 5 221 248 213 193
41 6 219 246 211 191
41 7 219 246 211 191
41 8 218 245 210 190
41 9 218 245 210 190
41 10 217 245 208 189
41 11 217 245 208 189
41 12 216 244 207 188
41 13 215 243 206 187
41 14 214 242 205 186
41 15 214 242 205 186
41 16 215 242 207 187
41 17 217 244 209 189
41 18 217 245 208 189
41 19 217 245 208 189
41 20 217 246 208 189
41 21 217 246 208 189
41 22 216 245 207 188
41 23 215 244 206 187
41 24 213 242 204 185
41 25 212 243 202 182
41 26 210 241 200 180
41 27 208 240 198 176
41 28 206 241 194 174
41 29 203 239 191 171
41 30 200 236 188 166
41 31 197 235 185 162
41 32 194 233 181 157
41 33 190 231 177 149
41 34 185 228 171 142
41 35 183 229 168 139
41 36 180 229 164 134
41 37 175 227 158 125
41 38 171 226 153 121
41 39 169 224 151 118
41 40 168 224 150 115
41 41 168 224 150 115
41 42 168 225 149 117
41 43 168 225 149 117
41 44 168 225 148 118
41 45 168 225 148 118
41 46 170 229 149 122
41 47 172 231 151 124
41 48 172 229 152 122
41 49 170 226 151 120
41 50 168 224 149 118
41 51 168 224 149 118
41 52 170 226 151 120
41 53 172 227 154 122
41 54 175 230 156 127
41 55 177 230 159 129
41 56 178 231 160 132
41 57 178 231 160 132
41 58 178 230 160 134
41 59 179 229 162 135
41 60 181 230 164 138
41 61 186 232 171 143
41 62 192 238 177 149
41 63 196 239 182 155
41 64 202 244 188 163
41 65 206 245 193 169
41 66 209 248 196 172
41 67 210 248 198 175
41 68 209 245 197 175
41 69 207 241 196 173
41 70 208 240 197 178
41 71 212 241 203 182
41 72 215 243 206 187
41 73 216 244 207 188
41 74 217 244 209 189
41 75 217 244 209 189
41 76 218 245 210 190
41 77 219 246 211 191
41 78 219 246 211 191
42 0 219 246 211 191
42 1 221 248 213 193
42 2 223 250 215 195
42 3 225 252 217 197
42 4 224 251 216 196
42 5 222 249 214 194
42 6 220 247 212 192
42 7 219 246 211 191
42 8 219 247 210 191
42 9 219 247 210 191
42 10 218 246 209 190
42 11 215 243 206 187
42 12 213 241 204 185
42 13 212 240 203 184
42 14 212 240 203 184
42 15 211 239 202 183
42 16 215 242 207 185
42 17 216 243 208 186
42 18 217 245 208 189
42 19 216 244 207 188
42 20 215 244 206 187
42 21 215 244 206 187
42 22 214 245 204 186
42 23 213 244 203 185
42 24 212 243 202 182
42 25 210 241 200 180
42 26 208 240 197 178
42 27 207 241 196 175
42 28 205 241 193 173
42 29 201 239 188 167
42 30 197 236 184 163
42 31 195 236 181 160
42 32 191 233 177 152
42 33 187 230 173 146
42 34 182 228 167 139
42 35 180 228 164 136
42 36 177 227 160 131
42 37 173 225 156 123
42 38 169 224 151 119
42 39 167 223 148 116
42 40 165 222 146 112
42 41 165 222 146 112
42 42 165 222 146 114
42 43 165 222 146 114
42 44 165 222 145 115
42 45 166 223 146 116
42 46 168 227 147 120
42 47 170 229 149 122
42 48 171 228 151 121
42 49 168 225 149 117
42 50 166 223 146 116
42 51 167 223 148 117
42 52 170 226 151 120
42 53 173 228 155 123
42 54 176 231 157 128
42 55 178 233 159 130
42 56 179 232 161 133
42 57 178 231 160 132
42 58 178 230 160 134
42 59 179 229 162 136
42 60 181 230 164 140
42 61 185 231 169 144
42 62 192 238 176 151
42 63 196 239 182 155
42 64 202 243 189 163
42 65 207 246 194 170
42 66 209 248 196 174
42 67 209 245 197 174
42 68 207 242 196 173
42 69 205 237 195 171
42 70 206 237 196 176
42 71 211 240 202 181
42 72 216 244 207 188
42 73 217 245 208 189
42 74 218 245 210 191
42 75 218 245 210 191
42 76 219 246 211 192
42 77 220 247 212 193
42 78 220 247 212 193
43 0 221 248 213 193
43 1 222 249 214 194
43 2 223 250 215 195
43 3 223 250 215 195
43 4 223 250 215 195
43 5 220 247 212 192
43 6 218 245 210 190
43 7 217 244 209 189
43 8 218 246 209 190
43 9 218 246 209 190
43 10 216 244 207 188
43 11 213 241 204 185
43 12 210 238 201 182
43 13 210 238 201 182
43 14 211 239 202 183
43 15 210 238 201 182
43 16 214 241 206 184
43 17 216 243 208 186
43 18 217 245 208 189
43 19 215 243 206 187
43 20 214 243 205 186
43 21 214 243 205 186
43 22 213 244 203 185
43 23 212 243 202 184
43 24 211 242 201 181
43 25 209 241 198 179
43 26 206 240 195 174
43 27 204 239 192 172
43 28 201 239 188 167
43 29 197 236 184 163
43 30 194 235 180 160
43 31 193 235 178 158
43 32 189 232 174 150
43 33 185 230 170 144
43 34 180 228 164 137
43 35 177 226 161 133
43 36 175 227 158 129
43 37 171 224 153 123
43 38 166 221 148 116
43 39 164 220 145 113
43 40 163 220 144 112
43 41 163 220 144 110
43 42 164 221 145 113
43 43 165 222 146 114
43 44 165 222 145 115
43 45 166 223 146 116
43 46 168 227 148 118
43 47 169 228 149 119
43 48 169 226 150 118
43 49 167 224 148 116
43 50 165 222 145 115
43 51 166 223 146 116
43 52 169 225 150 119
43 53 173 229 154 123
43 54 176 231 157 128
43 55 178 233 159 130
43 56 179 234 160 133
43 57 179 232 160 135
43 58 179 231 161 136
43 59 180 230 163 137
43 60 181 230 164 140
43 61 185 231 169 144
43 62 191 237 175 150
43 63 197 240 182 158
43 64 203 244 190 166
43 65 207 246 194 170
43 66 208 246 196 173
43 67 207 243 195 172
43 68 205 240 194 171
43 69 204 236 194 170
43 70 206 237 196 176
43 71 211 240 202 181
43 72 217 245 208 189
43 73 218 246 209 190
43 74 219 246 211 192
43 75 219 246 211 192
43 76 219 246 211 192
43 77 219 246 211 192
43 78 219 246 211 192
44 0 221 248 213 193
44 1 222 249 214 194
44 2 221 248 213 193
44 3 221 248 213 193
44 4 219 246 211 191
44 5 218 245 210 190
44 6 216 243 208 188
44 7 215 242 207 187
44 8 213 241 204 185
44 9 213 241 204 185
44 10 211 239 202 183
44 11 209 237 200 181
44 12 209 237 200 181
44 13 210 238 201 182
44 14 212 240 203 184
44 15 212 240 203 184
44 16 213 240 205 183
44 17 215 242 207 185
44 18 216 244 208 186
44 19 215 243 207 185
44 20 214 243 205 184
44 21 213 244 203 183
44 22 213 244 203 183
44 23 213 244 203 183
44 24 209 241 198 179
44 25 207 239 196 177
44 26 204 239 192 172
44 27 200 236 188 168
44 28 196 234 183 162
44 29 191 230 178 157
44 30 190 232 175 155
44 31 191 234 176 154
44 32 187 233 171 148
44 33 183 231 167 142
44 34 178 227 161 135
44 35 175 225 158 131
44 36 173 226 155 127
44 37 168 223 149 120
44 38 163 219 144 113
44 39 161 217 142 110
44 40 162 218 143 111
44 41 162 218 143 111
44 42 164 220 145 113
44 43 166 222 147 115
44 44 167 224 148 116
44 45 167 224 148 116
44 46 168 227 148 117
44 47 168 227 148 117
44 48 166 225 146 115
44 49 165 224 145 114
44 50 164 221 145 113
44 51 166 223 147 115
44 52 169 225 150 119
44 53 173 229 154 123
44 54 176 232 157 128
44 55 178 233 159 132
44 56 181 236 162 137
44 57 181 234 162 137
44 58 182 234 164 139
44 59 184 234 166 143
44 60 184 233 167 145
44 61 186 232 170 147
44 62 193 239 177 154
44 63 199 242 184 160
44 64 205 246 192 168
44 65 207 246 194 170
44 66 207 245 195 172
44 67 205 241 193 170
44 68 206 241 195 172
44 69 207 239 197 173
44 70 209 240 199 179
44 71 213 242 204 183
44 72 218 246 209 190
44 73 220 248 211 192
44 74 221 248 213 194
44 75 221 248 213 194
44 76 219 246 211 192
44 77 218 245 210 191
44 78 218 245 209 193
45 0 222 249 214 194
45 1 222 249 214 194
45 2 221 248 213 193
45 3 219 246 211 191
45 4 218 245 210 190
45 5 217 244 209 189
45 6 216 243 208 188
45 7 214 241 206 186
45 8 212 240 203 184
45 9 210 238 201 182
45 10 209 237 200 181
45 11 208 236 199 180
45 12 209 237 200 181
45 13 210 238 201 182
45 14 212 240 203 184
45 15 214 242 205 186
45 16 214 241 206 184
45 17 216 243 208 186
45 18 217 245 209 187
45 19 215 243 207 185
45 20 213 244 203 183
45 21 213 244 203 183
45 22 213 244 203 183
45 23 213 244 203 183
45 24 210 242 199 180
45 25 206 240 195 174
45 26 203 238 191 171
45 27 200 238 187 166
45 28 195 234 182 161
45 29 190 231 176 156
45 30 188 231 173 153
45 31 190 235 174 153
45 32 186 234 169 147
45 33 181 230 164 138
45 34 176 226 159 133
45 35 173 225 155 129
45 36 171 224 153 125
45 37 167 222 148 121
45 38 163 219 144 115
45 39 160 216 141 110
45 40 161 217 142 111
45 41 162 218 143 111
45 42 163 219 144 112
45 43 165 221 146 114
45 44 166 223 147 115
45 45 165 222 146 114
45 46 165 224 145 114
45 47 165 224 145 114
45 48 164 223 144 113
45 49 164 223 144 113
45 50 165 224 145 114
45 51 167 224 148 116
45 52 171 228 151 121
45 53 174 230 155 124
45 54 178 234 158 132
45 55 180 236 160 134
45 56 181 236 162 137
45 57 182 235 163 139
45 58 184 237 165 143
45 59 185 235 167 144
45 60 186 235 169 147
45 61 188 234 172 149
45 62 194 240 178 155
45 63 201 244 186 162
45 64 207 248 194 170
45 65 209 247 197 172
45 66 208 244 196 173
45 67 207 242 196 172
45 68 209 243 198 175
45 69 211 243 201 177
45 70 214 245 204 184
45 71 217 246 208 187
45 72 219 247 210 191
45 73 221 249 212 193
45 74 222 249 214 195
45 75 221 248 213 194
45 76 219 246 211 192
45 77 218 245 210 191
45 78 217 244 208 192
46 0 222 249 214 194
46 1 222 249 214 194
46 2 221 248 213 193
46 3 219 246 211 191
46 4 219 246 211 191
46 5 218 245 210 190
46 6 217 244 209 189
46 7 215 242 207 187
46 8 213 241 204 185
46 9 210 238 201 182
46 10 208 236 199 180
46 11 209 237 200 181
46 12 210 238 201 182
46 13 210 238 201 182
46 14 211 239 202 183
46 15 214 242 205 186
46 16 215 242 207 185
46 17 217 244 209 187
46 18 218 246 210 188
46 19 215 243 207 185
46 20 213 244 203 183
46 21 213 244 203 183
46 22 212 244 201 182
46 23 212 244 201 182
46 24 210 244 199 178
46 25 206 240 195 174
46 26 202 237 190 170
46 27 201 239 188 167
46 28 197 238 183 163
46 29 192 234 177 157
46 30 189 232 174 154
46 31 189 235 173 152
46 32 184 233 167 143
46 33 179 229 162 136
46 34 173 225 155 130
46 35 170 223 151 126
46 36 169 224 150 123
46 37 166 221 147 120
46 38 163 219 144 115
46 39 161 217 142 111
46 40 160 216 141 110
46 41 161 217 142 111
46 42 161 217 142 110
46 43 163 219 144 112
46 44 163 220 144 112
46 45 161 218 142 110
46 46 161 220 141 110
46 47 160 219 140 109
46 48 163 223 143 110
46 49 164 223 144 111
46 50 166 225 146 115
46 51 169 226 150 118
46 52 172 229 152 122
46 53 175 232 155 125
46 54 178 234 158 132
46 55 180 236 160 134
46 56 181 236 162 137
46 57 180 233 161 137
46 58 181 234 162 140
46 59 184 234 166 143
46 60 186 235 169 147
46 61 189 235 173 152
46 62 195 241 179 158
46 63 202 245 187 165
46 64 207 246 194 172
46 65 210 248 198 175
46 66 210 246 198 175
46 67 209 244 198 174
46 68 212 246 201 178
46 69 215 247 205 181
46 70 217 248 207 187
46 71 219 248 210 189
46 72 220 248 211 192
46 73 220 248 211 192
46 74 220 247 212 193
46 75 219 246 211 192
46 76 218 245 209 193
46 77 217 244 208 192
46 78 217 244 208 192
47 0 220 247 212 192
47 1 220 247 212 192
47 2 220 247 212 192
47 3 218 245 210 190
47 4 218 245 210 190
47 5 218 245 210 190
47 6 217 244 209 189
47 7 215 242 207 187
47 8 212 240 203 184
47 9 207 235 198 179
47 10 205 233 196 177
47 11 208 236 199 180
47 12 211 239 202 183
47 13 210 238 201 182
47 14 212 240 203 184
47 15 216 244 207 188
47 16 216 243 208 186
47 17 218 245 210 188
47 18 218 246 210 188
47 19 216 244 208 186
47 20 213 244 203 183
47 21 212 243 202 182
47 22 211 243 200 181
47 23 211 243 200 181
47 24 208 242 197 176
47 25 203 238 191 171
47 26 200 236 188 168
47 27 200 238 187 166
47 28 198 239 184 163
47 29 192 234 177 157
47 30 188 231 173 151
47 31 186 232 170 147
47 32 182 231 165 141
47 33 176 228 158 133
47 34 170 223 151 127
47 35 167 220 148 123
47 36 167 222 148 121
47 37 165 220 146 117
47 38 163 219 144 115
47 39 162 218 143 112
47 40 161 217 142 111
47 41 160 216 141 109
47 42 160 216 141 109
47 43 161 217 142 110
47 44 160 217 141 109
47 45 159 216 140 108
47 46 158 217 138 107
47 47 158 217 138 107
47 48 162 222 141 111
47 49 163 223 143 110
47 50 166 225 146 115
47 51 169 228 149 119
47 52 172 229 152 122
47 53 174 231 154 126
47 54 176 232 156 130
47 55 178 234 158 134
47 56 181 236 161 138
47 57 179 232 160 138
47 58 179 231 160 138
47 59 182 232 164 143
47 60 186 234 169 149
47 61 190 236 174 153
47 62 196 241 180 159
47 63 202 244 188 165
47 64 207 246 194 172
47 65 210 246 198 175
47 66 211 247 199 176
47 67 211 246 200 177
47 68 213 245 203 179
47 69 216 247 206 184
47 70 218 247 209 188
47 71 220 249 211 190
47 72 220 248 211 192
47 73 219 247 210 191
47 74 217 245 208 190
47 75 216 243 208 189
47 76 216 243 207 191
47 77 217 244 208 192
47 78 217 244 208 192
48 0 220 247 212 193
48 1 219 246 211 192
48 2 219 246 211 191
48 3 219 246 211 191
48 4 219 247 210 191
48 5 218 246 209 190
48 6 215 243 206 187
48 7 213 241 204 185
48 8 211 239 202 183
48 9 209 237 200 181
48 10 208 236 199 180
48 11 209 237 200 181
48 12 211 239 202 183
48 13 212 240 203 184
48 14 214 242 205 186
48 15 216 244 207 188
48 16 217 244 209 189
48 17 219 246 211 191
48 18 219 247 211 189
48 19 216 244 208 186
48 20 213 244 203 183
48 21 212 243 202 182
48 22 211 243 200 181
48 23 210 242 199 180
48 24 207 241 196 177
48 25 203 238 191 171
48 26 200 236 188 168
48 27 198 236 185 164
48 28 196 237 182 161
48 29 193 235 179 156
48 30 189 232 174 150
48 31 183 229 167 142
48 32 179 228 162 138
48 33 174 226 156 131
48 34 169 222 150 126
48 35 166 219 147 122
48 36 165 220 146 119
48 37 164 220 145 116
48 38 162 219 142 112
48 39 161 218 142 110
48 40 161 218 142 110
48 41 160 217 141 109
48 42 161 218 142 110
48 43 161 218 142 110
48 44 159 216 139 109
48 45 157 214 137 107
48 46 156 215 136 106
48 47 158 217 138 107
48 48 160 219 140 109
48 49 165 224 145 114
48 50 168 227 148 118
48 51 168 227 148 118
48 52 169 226 149 121
48 53 173 230 153 127
48 54 177 233 157 134
48 55 177 233 156 136
48 56 180 235 160 139
48 57 179 232 159 140
48 58 179 229 161 140
48 59 181 230 163 144
48 60 185 231 169 148
48 61 191 236 175 154
48 62 197 240 182 160
48 63 201 242 188 164
48 64 206 244 194 171
48 65 208 243 197 174
48 66 210 245 199 176
48 67 212 246 201 178
48 68 213 245 203 181
48 69 215 246 205 185
48 70 217 246 208 187
48 71 219 248 210 191
48 72 218 247 208 191
48 73 216 245 206 189
48 74 215 244 205 188
48 75 217 245 208 190
48 76 217 245 208 190
48 77 215 243 206 188
48 78 215 242 207 188
49 0 219 246 211 192
49 1 219 246 211 192
49 2 218 245 210 190
49 3 218 245 210 190
49 4 217 245 208 189
49 5 216 244 207 188
49 6 214 242 205 186
49 7 212 240 203 184
49 8 211 239 202 183
49 9 210 238 201 182
49 10 211 239 202 183
49 11 212 240 203 184
49 12 213 241 204 185
49 13 213 241 204 185
49 14 214 242 205 186
49 15 216 243 208 188
49 16 217 244 209 189
49 17 218 243 211 190
49 18 218 246 210 188
49 19 215 243 207 185
49 20 212 243 202 182
49 21 211 242 201 181
49 22 210 242 199 180
49 23 209 243 198 179
49 24 207 242 195 177
49 25 202 237 190 172
49 26 198 236 185 166
49 27 196 235 183 162
49 28 194 235 180 159
49 29 192 234 178 153
49 30 187 230 172 148
49 31 182 228 166 141
49 32 178 227 161 137
49 33 174 226 156 131
49 34 170 223 151 127
49 35 167 220 148 123
49 36 165 221 145 119
49 37 163 219 144 113
49 38 161 218 141 111
49 39 160 217 141 109
49 40 161 218 142 108
49 41 162 219 143 109
49 42 163 220 144 112
49 43 163 220 144 112
49 44 161 218 141 111
49 45 158 215 138 108
49 46 157 216 137 107
49 47 159 218 139 109
49 48 162 221 142 111
49 49 165 224 145 114
49 50 167 226 147 117
49 51 169 226 149 119
49 52 171 228 151 125
49 53 173 229 153 129
49 54 177 233 157 134
49 55 179 234 159 138
49 56 179 232 159 140
49 57 179 231 160 140
49 58 180 229 162 143
49 59 183 231 166 146
49 60 189 234 173 152
49 61 195 238 180 158
49 62 201 243 187 164
49 63 205 244 192 168
49 64 206 242 194 172
49 65 208 242 197 174
49 66 210 244 199 176
49 67 211 243 201 179
49 68 212 243 202 182
49 69 213 242 204 183
49 70 215 244 206 187
49 71 216 245 207 188
49 72 216 245 206 189
49 73 216 245 206 189
49 74 215 244 205 188
49 75 215 244 205 188
49 76 215 243 206 188
49 77 215 243 206 188
49 78 214 241 206 187
50 0 219 246 211 191
50 1 218 245 210 190
50 2 217 244 209 189
50 3 217 244 209 189
50 4 216 243 208 188
50 5 214 241 206 186
50 6 212 240 203 184
50 7 211 239 202 183
50 8 211 239 202 183
50 9 212 240 203 184
50 10 214 242 205 186
50 11 215 243 206 187
50 12 215 243 206 187
50 13 214 242 205 186
50 14 215 243 206 187
50 15 216 243 208 188
50 16 216 243 208 186
50 17 218 243 211 188
50 18 217 245 209 187
50 19 214 242 206 184
50 20 212 243 202 182
50 21 211 242 201 181
50 22 209 241 198 179
50 23 208 242 197 178
50 24 205 240 193 175
50 25 200 235 188 170
50 26 196 234 183 164
50 27 194 233 181 160
50 28 193 234 179 158
50 29 191 233 177 152
50 30 188 231 173 149
50 31 182 228 166 141
50 32 176 225 159 133
50 33 173 225 155 130
50 34 170 223 151 127
50 35 168 221 149 124
50 36 165 221 145 119
50 37 162 218 143 112
50 38 160 217 140 110
50 39 160 217 141 109
50 40 161 218 142 108
50 41 164 221 145 111
50 42 166 223 147 115
50 43 165 222 146 114
50 44 162 219 142 112
50 45 161 218 141 111
50 46 160 219 139 112
50 47 160 219 140 110
50 48 164 221 145 113
50 49 164 221 145 113
50 50 167 224 147 117
50 51 170 227 150 120
50 52 172 229 152 126
50 53 174 230 154 130
50 54 177 233 157 134
50 55 181 236 161 140
50 56 183 235 164 144
50 57 183 233 165 144
50 58 184 232 167 147
50 59 187 233 171 150
50 60 193 236 178 156
50 61 199 241 185 162
50 62 204 245 191 167
50 63 206 244 194 169
50 64 207 242 196 173
50 65 209 243 198 175
50 66 210 244 199 178
50 67 212 244 202 180
50 68 212 243 202 182
50 69 213 242 204 183
50 70 214 243 205 186
50 71 215 243 206 187
50 72 216 245 206 189
50 73 216 245 206 189
50 74 216 245 206 189
50 75 215 244 205 188
50 76 214 242 205 187
50 77 214 242 205 187
50 78 214 241 206 187
51 0 219 246 211 191
51 1 218 245 210 190
51 2 217 244 209 189
51 3 216 243 208 188
51 4 214 241 206 186
51 5 213 240 205 185
51 6 211 239 202 183
51 7 210 238 201 182
51 8 211 239 202 183
51 9 212 240 203 184
51 10 215 243 206 187
51 11 216 244 207 188
51 12 216 244 207 188
51 13 215 243 206 187
51 14 215 243 206 187
51 15 216 244 207 188
51 16 216 243 208 186
51 17 217 242 210 187
51 18 216 244 208 186
51 19 214 242 206 184
51 20 212 243 202 182
51 21 211 242 201 181
51 22 210 244 199 180
51 23 208 242 197 178
51 24 205 240 193 175
51 25 200 236 187 170
51 26 197 235 184 165
51 27 195 234 182 161
51 28 192 234 177 157
51 29 190 233 175 151
51 30 186 231 171 145
51 31 181 227 166 138
51 32 175 224 158 132
51 33 174 226 156 130
51 34 171 224 152 127
51 35 169 224 150 123
51 36 165 221 146 117
51 37 162 218 143 112
51 38 161 218 142 110
51 39 162 219 143 111
51 40 163 220 144 110
51 41 166 223 147 113
51 42 166 223 147 115
51 43 165 222 146 114
51 44 164 221 144 114
51 45 164 221 144 114
51 46 164 223 143 116
51 47 163 222 143 113
51 48 165 222 145 115
51 49 166 223 147 115
51 50 168 225 148 118
51 51 170 227 150 120
51 52 173 229 153 127
51 53 177 232 158 133
51 54 181 236 161 138
51 55 184 237 165 143
51 56 186 236 168 147
51 57 185 234 168 146
51 58 185 231 169 148
51 59 190 233 175 153
51 60 196 238 182 159
51 61 203 244 190 166
51 62 207 246 194 170
51 63 208 244 196 173
51 64 209 244 198 175
51 65 210 242 200 176
51 66 212 244 202 180
51 67 213 244 203 181
51 68 213 242 204 183
51 69 214 243 205 184
51 70 214 242 205 186
51 71 215 243 206 187
51 72 216 245 206 189
51 73 218 247 208 191
51 74 219 248 209 192
51 75 216 245 206 189
51 76 215 243 206 188
51 77 214 242 205 187
51 78 214 241 206 187
52 0 219 244 212 191
52 1 219 244 212 191
52 2 218 245 210 190
52 3 216 243 208 188
52 4 214 241 206 186
52 5 212 239 204 184
52 6 211 239 202 183
52 7 210 238 201 182
52 8 211 239 202 183
52 9 213 241 204 185
52 10 214 243 205 184
52 11 216 245 207 186
52 12 217 246 208 187
52 13 217 246 208 187
52 14 216 245 207 186
52 15 215 243 207 185
52 16 216 243 208 186
52 17 216 241 209 186
52 18 215 243 207 185
52 19 214 242 206 184
52 20 214 245 204 184
52 21 212 243 202 182
52 22 211 245 200 181
52 23 210 244 199 180
52 24 208 243 196 178
52 25 205 241 192 175
52 26 202 240 189 170
52 27 198 237 185 163
52 28 192 234 178 155
52 29 187 230 172 148
52 30 183 228 168 142
52 31 178 226 162 135
52 32 177 227 160 134
52 33 175 227 157 131
52 34 173 226 154 129
52 35 169 224 150 123
52 36 166 222 147 118
52 37 164 221 144 114
52 38 164 223 144 113
52 39 165 224 145 112
52 40 166 223 147 113
52 41 166 223 147 113
52 42 165 222 146 114
52 43 164 221 145 113
52 44 165 222 145 115
52 45 168 225 148 118
52 46 168 225 148 120
52 47 166 223 146 116
52 48 167 224 147 117
52 49 169 226 150 118
52 50 171 228 151 121
52 51 172 229 152 122
52 52 176 232 156 130
52 53 182 237 163 138
52 54 187 240 168 144
52 55 188 240 169 147
52 56 186 235 169 147
52 57 184 232 167 145
52 58 184 229 168 147
52 59 190 232 176 153
52 60 200 241 186 165
52 61 208 246 196 173
52 62 211 247 199 176
52 63 212 247 201 177
52 64 210 244 199 176
52 65 212 244 202 178
52 66 214 246 204 182
52 67 215 246 205 183
52 68 215 244 206 185
52 69 215 243 207 185
52 70 216 244 207 188
52 71 216 244 207 188
52 72 217 245 208 190
52 73 219 247 210 192
52 74 220 249 210 193
52 75 218 247 208 191
52 76 215 243 206 188
52 77 214 242 205 187
52 78 212 240 203 184
53 0 219 244 212 191
53 1 219 244 212 191
53 2 218 245 210 190
53 3 216 243 208 188
53 4 214 241 206 186
53 5 212 239 204 184
53 6 211 239 202 183
53 7 211 239 202 183
53 8 212 240 203 184
53 9 214 242 205 186
53 10 216 245 207 186
53 11 217 246 208 187
53 12 218 247 209 188
53 13 218 247 209 188
53 14 217 246 208 187
53 15 216 244 208 186
53 16 216 243 208 186
53 17 215 242 207 185
53 18 215 243 207 185
53 19 215 243 207 185
53 20 215 246 205 185
53 21 214 245 204 184
53 22 212 246 201 182
53 23 211 245 200 181
53 24 209 244 197 179
53 25 206 242 194 174
53 26 205 243 192 173
53 27 201 242 187 166
53 28 193 235 179 156
53 29 188 233 173 147
53 30 183 229 167 142
53 31 179 227 163 136
53 32 178 228 161 134
53 33 176 229 158 130
53 34 173 228 154 127
53 35 170 226 151 122
53 36 167 224 147 117
53 37 166 223 147 115
53 38 166 225 146 113
53 39 167 226 147 114
53 40 168 227 148 115
53 41 166 223 147 113
53 42 165 222 146 114
53 43 165 222 146 114
53 44 168 225 148 118
53 45 170 227 150 120
53 46 170 227 150 122
53 47 169 226 149 121
53 48 169 226 149 119
53 49 172 229 153 121
53 50 174 231 154 124
53 51 175 231 156 127
53 52 180 236 160 134
53 53 187 240 168 143
53 54 191 243 173 148
53 55 191 241 173 150
53 56 188 236 171 149
53 57 186 232 170 147
53 58 186 229 171 149
53 59 192 233 179 155
53 60 202 241 189 167
53 61 210 246 198 175
53 62 213 248 202 178
53 63 213 247 203 178
53 64 211 243 201 177
53 65 213 244 204 179
53 66 214 245 204 182
53 67 215 244 206 183
53 68 215 243 207 185
53 69 216 244 208 186
53 70 217 245 208 189
53 71 217 245 208 189
53 72 217 245 208 190
53 73 219 247 210 192
53 74 220 249 210 193
53 75 218 247 208 191
53 76 215 243 206 188
53 77 213 241 204 186
53 78 211 239 202 183
54 0 219 244 212 191
54 1 219 244 212 191
54 2 218 243 211 190
54 3 216 241 209 188
54 4 213 240 205 185
54 5 211 238 203 183
54 6 211 239 202 183
54 7 211 239 202 183
54 8 214 242 205 186
54 9 217 245 208 189
54 10 219 248 210 189
54 11 220 249 211 190
54 12 219 248 210 189
54 13 219 248 210 189
54 14 218 247 209 188
54 15 216 244 208 186
54 16 216 243 208 186
54 17 215 242 207 185
54 18 214 242 206 184
54 19 215 243 207 185
54 20 215 246 205 185
54 21 214 245 204 184
54 22 212 246 201 182
54 23 211 245 200 181
54 24 207 242 195 177
54 25 206 242 194 174
54 26 204 242 191 172
54 27 201 242 187 166
54 28 195 238 180 158
54 29 190 235 175 149
54 30 185 231 169 144
54 31 181 230 164 138
54 32 179 231 161 135
54 33 177 230 159 131
54 34 174 229 155 128
54 35 172 228 153 124
54 36 170 227 150 120
54 37 168 227 148 117
54 38 167 227 147 114
54 39 167 226 147 114
54 40 168 227 148 115
54 41 166 225 146 113
54 42 166 225 146 115
54 43 168 227 148 117
54 44 170 227 150 120
54 45 171 228 151 121
54 46 171 230 150 123
54 47 170 229 149 122
54 48 170 229 150 120
54 49 173 232 153 123
54 50 176 233 156 128
54 51 179 235 160 131
54 52 184 240 164 138
54 53 189 242 170 145
54 54 192 244 174 149
54 55 192 241 175 151
54 56 191 237 175 152
54 57 190 235 174 153
54 58 192 234 177 157
54 59 196 235 183 161
54 60 204 242 192 169
54 61 210 246 198 175
54 62 212 247 201 178
54 63 213 247 202 179
54 64 212 244 202 180
54 65 214 245 204 182
54 66 215 244 206 185
54 67 216 244 208 186
54 68 216 244 207 188
54 69 216 243 208 188
54 70 217 244 209 190
54 71 218 245 210 191
54 72 219 247 210 192
54 73 219 247 210 192
54 74 219 248 209 192
54 75 218 247 208 191
54 76 216 245 207 188
54 77 213 242 204 185
54 78 211 239 202 183
55 0 219 244 212 191
55 1 219 244 212 191
55 2 218 243 211 190
55 3 216 241 209 188
55 4 213 240 205 185
55 5 211 238 203 183
55 6 211 239 202 183
55 7 211 239 202 183
55 8 215 243 206 187
55 9 219 247 210 191
55 10 222 251 213 192
55 11 222 251 213 192
55 12 221 250 212 191
55 13 220 249 211 190
55 14 219 248 210 189
55 15 217 245 209 187
55 16 216 244 208 186
55 17 215 242 207 185
55 18 214 242 206 184
55 19 215 243 207 185
55 20 215 246 205 185
55 21 214 245 204 184
55 22 212 244 201 182
55 23 210 244 199 180
55 24 209 244 197 179
55 25 206 242 194 174
55 26 204 242 191 172
55 27 201 242 187 166
55 28 195 238 180 158
55 29 190 235 175 149
55 30 186 232 170 145
55 31 181 230 165 137
55 32 181 233 163 137
55 33 179 232 161 133
55 34 176 232 157 128
55 35 175 232 155 125
55 36 173 232 153 123
55 37 171 230 151 120
55 38 168 228 148 115
55 39 167 227 147 114
55 40 167 227 147 114
55 41 166 225 146 113
55 42 167 226 147 116
55 43 170 229 150 119
55 44 172 229 152 122
55 45 171 228 151 123
55 46 170 229 149 124
55 47 170 229 149 124
55 48 172 231 151 124
55 49 173 230 153 123
55 50 177 234 157 129
55 51 184 240 164 138
55 52 189 244 170 145
55 53 191 244 172 147
55 54 192 244 173 151
55 55 193 242 176 152
55 56 192 238 176 155
55 57 193 236 178 156
55 58 195 237 180 160
55 59 200 239 187 165
55 60 205 243 193 170
55 61 210 245 199 176
55 62 213 247 202 179
55 63 214 246 204 180
55 64 214 245 204 182
55 65 215 244 206 183
55 66 216 244 208 186
55 67 216 244 208 186
55 68 216 243 208 188
55 69 216 243 208 188
55 70 218 245 210 191
55 71 219 246 211 192
55 72 220 248 211 193
55 73 219 247 210 192
55 74 218 247 208 191
55 75 218 247 208 191
55 76 216 245 207 188
55 77 213 242 204 185
55 78 212 240 203 184
56 0 218 243 211 190
56 1 218 243 211 190
56 2 217 244 209 189
56 3 215 242 207 187
